# .PCD v0.7 - Point Cloud Data file format
VERSION 0.7
FIELDS x y z intensity
SIZE 4 4 4 4
TYPE F F F F
COUNT 1 1 1 1
WIDTH 100
HEIGHT 1
VIEWPOINT 0 0 0 1 0 0 0
POINTS 100
DATA ascii
-6.423474 -7.318108 1.112302 0.187117
10.549377 22.692583 2.470865 0.504392
9.415313 16.340818 0.216359 0.509200
-5.976285 -4.358687 0.084866 0.325501
12.621653 16.324284 4.724593 0.574572
14.314182 0.504050 0.840986 0.730733
20.456116 11.447400 1.259082 0.230069
-2.421972 4.756073 0.074121 0.178964
18.679728 -2.666593 -0.021939 0.233652
-8.080222 -1.116640 0.024269 0.105873
22.827402 17.445232 0.921677 0.600420
-0.403226 -11.709004 2.488661 0.293026
14.383252 -24.108128 2.327050 0.620444
-9.547117 -20.501766 0.982508 0.382953
29.456650 21.119389 5.034419 0.795161
14.482456 -0.429709 0.420074 0.839899
2.351161 -0.184038 -0.034933 0.172371
-13.214036 3.849278 0.043809 0.272549
4.798699 -8.317694 0.974670 0.429615
16.375887 0.596596 1.305305 0.843306
13.666084 0.158110 0.807685 0.880015
4.302900 1.611766 0.035202 0.301917
9.356197 27.005486 2.043545 0.549408
-6.850608 -2.028950 3.669351 0.333874
11.775065 -0.644577 0.587404 0.511170
14.482073 -0.769860 1.197716 0.503291
-1.659337 4.060669 2.535079 0.491813
4.100235 10.330028 2.258320 0.280174
16.280207 4.800202 0.017116 0.333103
7.124152 -9.578717 2.424538 0.346145
14.350140 1.499901 -0.015351 0.149548
16.093725 -4.234550 0.147831 0.266243
24.116678 -0.530544 0.029368 0.133928
17.082392 4.887053 0.123387 0.159243
-13.052061 -2.344306 0.017531 0.385303
23.272827 24.788630 4.805230 0.324482
9.875911 11.006877 0.011250 0.228657
-13.815708 -4.102033 0.134345 0.317903
19.111246 -7.436220 2.133362 0.174736
0.877603 3.912238 0.132984 0.196898
10.848116 -0.632292 1.376459 0.863344
12.963620 -0.368232 0.505232 0.758692
19.927401 4.017620 2.380851 0.226566
4.845830 12.687338 2.192271 0.333583
-19.116562 -19.065598 3.807242 0.471646
27.960464 -25.039263 3.245140 0.442270
-8.245144 16.506855 5.454389 0.564771
7.722344 3.068784 1.197533 0.158617
-8.782337 -11.120200 0.708117 0.240372
16.352964 -4.157579 0.071439 0.398675
17.585537 11.317878 1.968975 0.146295
-10.924233 -9.570455 2.388374 0.228183
14.329725 -1.856629 1.739662 0.546351
-5.157336 -3.598296 0.068268 0.279022
-12.961580 -5.781203 0.961261 0.115132
-3.789384 -3.958569 1.576503 0.237474
-10.517185 -11.039352 0.003083 0.227042
4.580080 -1.001435 -0.006867 0.412232
-6.982573 16.449808 1.454897 0.539932
-3.152414 -3.385285 3.721539 0.071856
13.462321 -6.053178 0.118435 0.134551
-19.537010 -13.766439 0.187701 0.355315
8.604479 -5.167222 2.276848 0.315588
-14.810345 10.973586 1.547798 0.140686
15.664746 -4.914731 3.675175 0.254506
24.385981 7.530753 2.032898 0.179600
17.992136 0.402936 0.624534 0.686312
10.781084 -1.880661 0.819718 0.508565
14.007333 4.562137 0.110787 0.229288
20.600779 0.562983 -0.037397 0.157487
-8.082243 8.551049 2.479436 0.101002
19.792538 1.692777 0.507640 0.453786
20.215212 0.217202 0.012179 0.209275
8.782704 -7.063286 1.659053 0.309061
8.828551 -3.846921 0.131083 0.213416
15.535408 -0.415334 1.316431 0.826596
15.669378 1.033689 1.775126 0.688673
-9.625904 5.920571 2.080920 0.233583
10.940720 1.558626 0.892511 0.807162
28.077482 -13.568835 1.197252 0.729491
-3.635578 -0.603982 2.933980 0.445265
1.371581 0.340390 2.966866 0.379011
15.699338 -1.581540 1.655960 0.889508
-11.005501 6.430781 1.859001 0.105785
0.085787 -10.035188 2.218928 0.198657
-0.426025 2.174823 2.323957 0.234113
22.415255 -0.194158 -0.030326 0.250882
13.941070 -1.475565 0.544307 0.808053
23.195936 -1.538419 -0.040108 0.401402
-6.094332 14.041762 1.114597 0.561006
4.052499 -4.811203 0.180692 0.266671
11.100768 -0.026961 -0.038931 0.200975
-1.156782 5.296071 3.506843 0.455739
24.294668 2.717995 -0.042818 0.155117
-0.866004 1.057965 0.387912 0.430609
6.694576 6.157179 0.633139 0.140078
8.369115 1.410777 -0.020397 0.248501
2.145649 5.200299 3.089412 0.143066
11.206553 1.584488 0.450593 0.619043
15.394356 -6.410159 1.654272 0.252437
