# .PCD v0.7 - Point Cloud Data file format
VERSION 0.7
FIELDS x y z intensity
SIZE 4 4 4 4
TYPE F F F F
COUNT 1 1 1 1
WIDTH 100
HEIGHT 1
VIEWPOINT 0 0 0 1 0 0 0
POINTS 100
DATA ascii
-2.444862 2.151587 0.019737 0.137671
10.445588 10.502450 0.320284 0.212596
-3.876059 8.535299 2.575460 0.420243
7.272387 0.218339 0.395726 0.872434
12.904387 -17.090519 5.824188 0.746561
12.783835 -1.221445 1.000082 0.519712
11.830489 0.979049 1.751265 0.646621
-5.181612 -0.182665 -0.031053 0.151969
-10.923626 -9.688698 1.092880 0.308170
8.123667 1.329039 1.507146 0.674365
7.299820 5.978267 0.499770 0.101841
6.594034 4.557748 0.117109 0.264729
-14.408120 5.801711 1.671007 0.217774
10.652361 1.059995 1.252077 0.749111
-7.841996 -2.815093 -0.006328 0.185834
9.085286 1.413612 0.650909 0.526236
-6.192187 3.238330 2.228129 0.402754
-3.744525 4.721031 0.025046 0.155678
5.900479 0.889437 0.992816 0.572572
-10.430637 3.926408 1.784625 0.221460
8.015121 0.521130 0.842719 0.539442
23.094883 -28.171614 4.198243 0.432935
11.150036 10.018231 1.123404 0.168060
16.104095 -0.265342 -0.029764 0.222383
3.168783 -1.939363 0.035661 0.403408
-3.395348 22.546177 3.504588 0.624923
9.158074 -1.833543 1.040986 0.648438
-14.219032 -2.379582 0.008764 0.168237
3.242445 4.020305 0.088637 0.155701
-0.707862 1.696411 -0.041727 0.294663
-0.278790 8.756529 2.286912 0.263070
-6.737240 -8.644707 1.097279 0.105403
19.808039 12.804982 3.324217 0.354288
7.812338 0.637691 1.390492 0.845891
16.640474 -6.611498 0.093531 0.238713
-5.163109 1.978738 0.030825 0.226856
-8.363286 4.272586 0.038395 0.384011
-18.203575 -4.152646 0.148856 0.372919
15.631700 2.360680 0.001886 0.226372
6.466451 -7.615604 0.236167 0.286697
17.472527 -6.686794 0.306895 0.307778
-12.829268 4.399074 0.131184 0.199109
-7.587053 1.664429 0.047183 0.300296
-24.303186 -14.593121 0.790933 0.638829
0.189898 3.885249 2.324466 0.139899
12.164981 1.292443 0.023898 0.152423
21.378128 -17.951565 1.805692 0.544292
14.556232 -0.854215 1.687213 0.511187
10.551980 0.535900 0.458846 0.563153
18.649277 -9.172297 2.332558 0.301090
14.238173 -10.356735 0.654864 0.714714
-10.694370 4.296154 0.090902 0.366935
-3.497137 7.619288 1.064705 0.262983
-1.383094 -5.043209 0.946649 0.385706
9.497063 -7.894438 0.266235 0.317495
16.233210 -16.206694 0.863232 0.760485
7.847201 -1.385546 0.473235 0.509517
-17.784184 -1.952151 -0.044662 0.336458
8.936304 -0.728036 1.056789 0.893752
-18.260998 6.270489 0.591862 0.162347
2.136980 -1.674752 0.197016 0.218126
-11.949842 6.669171 0.207847 0.466179
5.991131 1.374300 1.653980 0.940807
11.179102 4.463725 0.116849 0.183638
0.568915 11.003005 1.156998 0.196272
-9.341467 5.978379 1.194693 0.204222
8.675118 -0.534430 0.791243 0.670759
-8.124941 -4.923287 0.137452 0.270228
1.417392 10.939923 1.631468 0.301098
5.316705 3.932233 0.110234 0.200601
11.947981 1.442876 0.498154 0.776471
12.257156 -1.662027 1.703910 0.561834
18.355209 1.805305 0.009368 0.413050
13.380812 -4.932333 2.360304 0.092772
-13.148348 8.954655 1.431076 0.216496
10.226317 1.055694 1.498867 0.721469
17.249449 3.679600 0.017566 0.171927
-4.069585 25.486429 4.027389 0.466819
10.501286 6.893744 0.910480 0.178610
-14.088665 -4.904191 0.065686 0.245830
2.119723 2.616840 0.028030 0.291748
19.465261 -10.024322 2.377987 0.129620
6.853694 -12.438434 3.529548 0.643048
-14.630919 -0.913641 3.301598 0.182912
-1.730576 -3.961452 3.673768 0.401582
24.851732 27.584000 1.703451 0.718448
-15.743218 2.994628 0.016568 0.360050
13.970334 -1.884002 0.661242 0.564360
11.070718 -1.810775 0.041064 0.362508
-14.837105 -8.966842 2.423701 0.410667
-10.457888 2.096453 -0.044277 0.420386
8.163252 3.962416 3.351921 0.068068
-8.946537 -7.501526 2.018124 0.385335
13.511311 -1.379148 1.401932 0.586869
7.707588 0.839619 1.770307 0.775195
11.163090 -1.830598 1.626219 0.819310
-13.074886 -2.449674 -0.031647 0.492011
12.840810 0.545633 1.158620 0.565309
-9.932868 -21.560345 4.198656 0.624617
13.217833 -7.031220 2.033411 0.231815
