# .PCD v0.7 - Point Cloud Data file format
VERSION 0.7
FIELDS x y z intensity
SIZE 4 4 4 4
TYPE F F F F
COUNT 1 1 1 1
WIDTH 500
HEIGHT 1
VIEWPOINT 0 0 0 1 0 0 0
POINTS 500
DATA ascii
12.614712 2.810677 0.074915 0.201797
-15.095615 7.447965 -0.135498 0.191003
16.641523 -20.176615 3.924863 0.511898
1.462721 -0.654369 3.395264 0.062566
-1.078154 3.625644 -0.067285 0.266325
-11.691310 -2.468154 3.090164 0.061895
-10.708020 0.865034 -0.006997 0.220135
1.275444 -3.127610 5.965812 0.131831
-1.249628 -3.471229 5.761998 0.084139
-9.455779 12.355657 1.868126 0.250168
17.618122 -2.304363 0.084757 0.231397
-29.861473 14.933685 -0.087641 0.059309
-22.258196 -6.523267 0.052913 0.108939
-10.850611 1.809441 -0.007780 0.297985
3.987814 -0.272160 5.850183 0.084271
10.685643 -23.460075 0.322030 0.479853
14.977118 14.918077 0.012566 0.148999
26.852137 -1.069316 0.047702 0.220942
13.186952 10.089341 0.162835 0.112895
-9.458254 -19.081566 3.520401 0.350323
10.049396 11.244142 1.988729 0.103953
-10.407189 -2.417521 0.055630 0.358189
10.070950 -7.034903 0.825458 0.127731
10.484193 -14.103270 -0.118991 0.131312
27.175348 21.100605 2.040855 0.550191
28.567703 -0.802591 0.037086 0.106968
22.506456 11.102275 -0.022423 0.190391
-10.667060 20.445484 3.918594 0.552881
-6.635550 -2.557950 5.738016 0.142387
28.692266 12.449915 0.105867 0.164389
-2.612868 -2.078190 0.028964 0.186796
5.157682 -19.099823 1.750853 0.626422
-19.938028 -5.075070 -0.065548 0.169627
13.566955 -3.616709 5.323008 0.061570
29.916571 -2.459273 -0.069207 0.226840
25.974047 -14.808211 -0.172144 0.070700
-13.762071 13.078793 1.990360 0.122369
-19.418617 9.387963 1.656555 0.200153
7.446517 1.526867 5.976126 0.149942
-24.288055 1.822746 0.095333 0.195498
-4.513384 -15.514192 5.378116 0.441335
19.927204 -23.212307 3.333328 0.428618
18.083366 -9.930059 2.679093 0.128782
-24.234285 7.228204 1.601520 0.113504
-17.887716 -4.994812 4.308950 0.127462
9.135456 2.585019 -0.066400 0.144059
21.648058 2.584997 0.007788 0.345760
-6.331109 1.902380 -0.048510 0.325699
0.250716 2.002128 -0.007064 0.210371
-17.497240 -22.514908 0.951283 0.334393
-19.479210 -13.231076 -0.040597 0.198558
6.141593 -0.512705 4.178754 0.137508
28.535738 2.982872 -0.061540 0.166239
-12.654985 22.347252 4.531365 0.520364
12.631967 5.265778 -0.180216 0.140234
-14.388921 -9.186561 0.103164 0.173992
-6.877831 7.706968 0.008767 0.097212
10.599143 15.660792 0.008540 0.384911
8.777446 16.719603 7.122112 0.487982
17.421679 -4.405133 3.645535 0.108577
10.771621 -17.140923 0.793256 0.382794
-4.635958 -2.590894 -0.073062 0.358085
-8.354479 -3.557837 -0.028526 0.179442
-17.676582 13.883655 0.171867 0.064975
-23.080414 10.956554 0.365907 0.270476
15.256290 2.558471 0.005212 0.399003
-5.924102 -18.239367 7.589164 0.530744
-13.186353 4.786342 4.495919 0.099367
18.835390 -1.192676 4.192575 0.108475
-10.734862 -16.932083 0.826268 0.646458
-8.479632 -0.730645 -0.013696 0.289945
25.966778 -18.914919 2.634100 0.480419
2.717369 -0.381821 4.976260 0.105440
-9.256151 -8.785928 -0.162144 0.074909
-6.654197 17.145390 4.501379 0.602216
19.607393 -24.275049 4.779156 0.567579
17.820795 -1.075153 5.771701 0.107898
-29.722872 -3.691664 0.036084 0.268800
14.607597 2.817163 -0.000717 0.239727
-29.671614 2.293198 -0.033857 0.363629
2.603117 -2.296582 3.481765 0.127491
2.189276 -14.654160 0.185432 0.178346
5.656362 23.781475 2.995712 0.340442
18.657774 -0.145892 0.012879 0.394643
-4.501237 8.959875 1.252858 0.123680
13.508675 -2.156029 3.911390 0.137433
1.227447 -9.709406 2.070380 0.132678
10.099844 -0.986128 0.023743 0.112029
1.335054 -17.143265 1.116989 0.375390
-24.191391 -24.473198 3.239953 0.623588
-25.155884 21.516695 6.971272 0.553694
-4.135418 -5.358989 0.013840 0.199031
-27.576046 22.057970 2.414119 0.661196
26.152447 -13.374758 -0.152998 0.058974
-20.654539 0.279185 0.083149 0.270234
-4.110668 -0.549839 3.189352 0.146875
-18.638191 -7.860473 0.185749 0.064143
12.470634 12.640154 2.927693 0.268431
-22.383884 12.957886 0.018270 0.131524
18.872152 2.048383 4.448815 0.095640
-4.546342 -1.384010 4.174520 0.058975
16.792191 -9.568583 2.792053 0.222444
-20.548599 -2.353442 0.095147 0.165611
0.945341 3.489415 0.095439 0.170908
-20.783890 -15.633285 1.560994 0.527428
2.233133 11.259895 -0.119253 0.170088
14.565474 4.488431 4.043702 0.059058
-3.729506 -13.565549 1.134929 0.254155
-19.031473 -8.207341 0.061277 0.150928
-16.281263 -22.219069 1.350984 0.674668
-23.561258 19.976477 4.156397 0.503277
-3.799951 3.958519 -0.002744 0.243384
-17.326969 0.929566 3.683903 0.113761
28.883226 19.690050 7.174043 0.490224
-26.380152 2.577708 0.029637 0.334527
5.517470 3.562290 4.893196 0.084767
10.311252 -24.605869 2.967299 0.470033
0.345739 11.892585 1.379128 0.143099
9.808154 -3.688448 3.595751 0.112682
23.681273 -1.819308 -0.077855 0.386814
-18.139980 8.330636 1.588174 0.276565
15.632761 1.665260 -0.064964 0.207305
-21.154444 -8.187438 0.925000 0.125455
12.301692 6.559453 1.443369 0.256442
18.904387 19.482407 6.564456 0.396301
-19.418665 -9.674846 -0.043176 0.086139
-7.446129 -2.271957 3.392671 0.093882
-7.843629 7.887978 2.289466 0.286001
8.579906 -13.671722 0.199532 0.142027
24.516495 -22.914515 3.687451 0.332462
-19.367777 -0.227994 4.482944 0.090736
3.129762 23.366131 0.869257 0.390071
20.870213 3.958594 0.074582 0.366970
-5.900302 -8.144681 1.818898 0.287761
3.420107 -7.962996 -0.132080 0.079278
26.957611 9.028796 0.133648 0.152199
-18.484730 -2.596302 0.062398 0.179414
-14.397784 1.777086 5.443422 0.073526
-8.951706 4.645189 3.793793 0.092996
-9.878610 2.757911 5.315548 0.087832
-17.215504 15.043057 4.569339 0.697631
-18.454227 -2.920019 4.556744 0.130994
-6.285921 -11.976606 1.114630 0.137767
-5.397073 -0.164663 0.072363 0.292676
11.424117 3.863897 -0.017631 0.221006
-15.247465 12.298153 0.101829 0.064668
-17.966251 -16.853752 3.710625 0.415772
24.456293 2.421765 -0.046794 0.182240
-21.897715 -13.550387 1.206143 0.144938
-6.048282 -5.351168 -0.135223 0.145888
11.316211 -2.890656 5.752187 0.135100
-16.340332 5.505360 0.146969 0.095870
15.598013 -2.973654 0.056168 0.381553
-3.526635 -13.013425 1.582373 0.248954
14.961172 -8.302839 0.353532 0.147668
0.114997 0.052769 4.747933 0.089510
16.526150 -2.532749 5.209569 0.117797
-18.688187 -12.361858 2.881879 0.244367
29.051115 18.520506 5.105788 0.489573
19.465149 -4.061922 4.237125 0.137554
17.267570 -0.937735 0.095996 0.365059
16.211586 8.368566 0.042545 0.148772
-28.532949 7.201579 0.084767 0.134528
-0.175797 -4.447900 4.044827 0.136510
-6.213826 -13.561186 0.152642 0.249941
21.996531 -22.460680 7.085641 0.386370
16.756197 17.456997 1.845970 0.310873
12.601013 11.355603 0.097598 0.129742
-3.028065 1.123514 -0.059693 0.366418
-9.026183 20.786093 1.128218 0.688938
16.115707 4.218975 3.996489 0.066913
-24.599916 -6.201106 -0.171478 0.198473
-22.047476 2.618037 0.016048 0.332325
7.854721 3.057400 0.027694 0.256638
-2.104290 -1.539362 4.402957 0.066971
-14.357773 -7.228252 0.739057 0.268414
11.162992 12.851277 0.233234 0.253005
-17.002659 -11.889014 0.163919 0.094253
-12.609953 10.542856 0.048745 0.141550
-21.895212 -21.935404 5.398003 0.573035
-3.189669 9.272281 0.260134 0.144474
-3.542242 1.943251 -0.052588 0.348925
15.625301 19.725559 3.993554 0.547888
-0.491245 10.229260 1.805991 0.247503
0.941246 -0.147267 0.084337 0.248052
-1.900768 3.697600 -0.009885 0.154265
-24.288748 -15.005681 3.455565 0.607697
-28.071054 20.699829 1.234265 0.676431
5.065569 -1.737616 4.924684 0.091226
15.578583 -2.154567 0.081158 0.250063
20.983812 3.990629 -0.055211 0.186068
-14.227720 -10.659558 2.980567 0.298056
8.341633 -13.599706 0.173173 0.080579
19.970222 -18.032021 3.518472 0.694248
24.366409 -22.984484 2.153044 0.428340
1.891314 0.607774 4.516509 0.113667
14.950449 -18.335499 2.645416 0.350890
21.031252 -19.462824 1.822942 0.603736
-19.153759 -1.836385 3.531004 0.115587
-26.103193 15.549350 4.653819 0.308689
-20.676172 -11.065663 -0.022125 0.116428
-17.128115 3.027523 5.679157 0.051102
24.234251 -20.494936 1.200317 0.381116
8.992673 0.994268 5.859445 0.099406
-1.366025 8.877331 0.673248 0.109193
12.684561 -5.184378 -0.024329 0.146601
16.598906 -13.105197 0.084682 0.065420
6.204358 7.964528 0.127655 0.144718
-5.164181 16.766670 6.595325 0.670275
25.774374 -15.178610 7.399700 0.680772
15.781157 14.702016 0.162361 0.195607
3.019410 -3.374751 0.069958 0.284148
-3.309856 0.718420 3.460739 0.123977
13.786846 12.791827 1.417406 0.201966
-11.267143 3.755669 0.046625 0.210697
-11.216816 -0.360777 5.827705 0.123415
-17.085375 2.876489 -0.024360 0.355517
7.119637 -13.413363 0.773682 0.238585
-20.964104 6.707218 2.022586 0.167947
-1.481663 -12.537706 -0.085951 0.100257
1.204315 2.741856 -0.010722 0.385893
6.031784 -3.841011 5.655279 0.098927
-20.838593 -11.875340 -0.181051 0.092989
-3.535354 -19.143538 4.175012 0.411855
6.863166 -18.737181 5.210680 0.343467
-15.102345 -19.565474 3.152576 0.624121
1.826471 0.748125 -0.095634 0.254540
-4.723192 6.002874 0.113128 0.191361
6.082366 -12.638441 -0.086077 0.168133
7.941303 3.433301 0.096201 0.112704
2.819267 -6.467432 -0.065486 0.198147
-2.849524 2.741237 -0.035220 0.243940
28.682745 -0.200985 -0.073816 0.115516
-14.051435 10.032512 0.272105 0.184731
0.144780 3.769081 -0.048233 0.251364
14.381231 -0.517476 3.838462 0.135548
1.228932 4.765271 3.559450 0.080140
-6.489738 -7.001834 0.072014 0.077198
10.488765 -1.892197 -0.028956 0.204658
-2.009444 8.612989 0.141049 0.135793
24.005476 -8.426503 -0.184408 0.124190
-15.692014 -22.471109 1.046015 0.622778
4.261284 2.103592 5.140760 0.149281
-6.338470 -3.371434 4.557502 0.103325
6.786565 -6.112998 2.783005 0.152915
-23.505033 -7.402490 -0.090438 0.054922
-18.423496 -8.786209 -0.045933 0.100851
-24.616123 -5.252049 -0.119154 0.163497
25.711571 20.042194 4.254591 0.425833
15.885402 2.754179 0.079101 0.230305
18.383924 -8.467677 2.787727 0.118868
16.205442 6.746167 1.968689 0.106836
10.807478 2.992229 4.807231 0.135686
-13.444570 -9.141775 -0.183017 0.117232
-6.435899 -19.251026 7.035294 0.408136
-2.961161 -1.721923 4.507536 0.091774
-9.705108 0.026793 3.455405 0.085193
-5.195505 12.591299 0.770165 0.293954
28.055582 2.705092 -0.071579 0.257938
19.093641 10.673297 0.790348 0.285920
-23.088837 0.510899 0.044208 0.117655
18.954073 5.675273 0.004897 0.088784
-22.879358 3.496412 0.078946 0.155792
5.258099 -11.744498 1.327968 0.131258
29.985920 9.553521 0.149013 0.122356
25.341457 -3.297925 -0.077196 0.378890
-11.116953 8.841319 1.357351 0.183232
23.902523 -7.533076 0.082109 0.060073
9.223828 -18.390158 5.243675 0.337608
14.910868 13.010138 0.409412 0.164032
1.486906 -2.031315 3.181892 0.086888
-6.844723 6.969595 -0.095241 0.144043
-9.276997 -10.339056 0.108744 0.106830
27.972158 -10.219801 0.163919 0.169051
-4.254068 -21.983185 7.893695 0.483351
-24.432873 0.496073 -0.074687 0.325456
13.405882 2.954895 0.025790 0.283732
20.547300 -23.690538 0.291442 0.522476
21.620754 11.187181 1.260667 0.137621
12.226662 7.043595 -0.162567 0.183204
-18.012304 7.923115 0.188828 0.156228
-11.542291 8.393002 0.118571 0.245696
-29.708559 11.835960 2.846621 0.251301
-1.701589 -0.111638 -0.012773 0.197393
-4.130942 10.785343 2.694360 0.299002
-4.612661 -3.192938 4.056361 0.078747
-19.527773 2.112608 -0.000742 0.375774
-17.320879 -0.967264 3.240832 0.076273
29.161785 -2.328323 -0.060376 0.272092
4.826298 -18.767353 6.614099 0.355432
11.385711 -12.945891 1.108715 0.213549
-19.780855 -6.553105 2.183643 0.157612
-26.016104 2.900383 0.067106 0.126679
-26.622671 -12.829041 0.704110 0.209655
-4.425348 2.364204 -0.002220 0.250198
-13.994818 3.307039 3.155249 0.097765
15.453393 1.652140 5.055644 0.076332
-5.336758 0.214432 4.386684 0.082690
-14.948827 18.650473 1.199532 0.648842
-21.972815 -11.938593 0.139067 0.085630
-29.482965 -6.378003 2.286754 0.297437
-27.307180 1.984568 -0.085628 0.277640
-8.447736 5.109347 0.038076 0.198687
-12.420349 -3.760741 4.665767 0.109645
15.184397 -13.925415 0.122309 0.087090
-12.155282 8.638283 2.795833 0.236379
-4.985248 20.374376 3.896923 0.342915
-10.531920 0.276364 3.202123 0.143146
-18.121155 -12.122570 0.290804 0.280056
-17.255165 1.918471 4.894886 0.125735
13.101034 -10.689410 0.967390 0.239455
18.278864 0.875218 4.993035 0.093713
29.860044 7.283114 0.607216 0.207888
4.294187 -5.490740 -0.038289 0.137447
9.440038 11.761728 1.924642 0.258049
2.250460 10.849571 0.303580 0.154631
14.919489 1.790516 3.271224 0.109227
14.040994 -23.274408 4.747650 0.536545
-3.224999 -13.641084 0.089328 0.127963
-26.977215 -6.430074 -0.122790 0.106008
0.309204 7.348402 -0.157700 0.100746
12.629226 -1.166572 5.317517 0.130270
6.519585 -24.590961 3.217105 0.320378
15.346651 0.221414 4.656759 0.071174
12.778030 -0.014000 3.101633 0.118301
19.749029 8.217586 0.159975 0.288070
1.944919 11.138539 1.387800 0.183953
-16.129885 -2.672678 5.509922 0.064583
-16.398081 0.388912 -0.056974 0.148962
-7.914404 11.261593 0.164882 0.072649
16.099598 3.290876 4.893858 0.112015
5.568506 1.904956 3.049447 0.145809
11.258634 -1.227182 3.037192 0.100973
-3.780643 -18.397171 1.998609 0.511018
28.195913 16.729273 2.557325 0.417584
-0.043185 11.437405 0.180001 0.092783
-28.497587 17.623884 3.709758 0.312398
10.698636 11.973854 1.549724 0.220789
-27.524818 -6.799615 1.964988 0.299111
3.455010 -12.510088 0.130710 0.131781
7.194959 1.573800 0.071793 0.136687
-28.438955 2.689598 -0.084652 0.158388
-19.844234 -0.547433 4.003078 0.066599
-5.857747 -12.676610 0.157252 0.147885
-8.184368 4.133183 3.266203 0.090686
26.550278 3.605319 -0.017759 0.300219
15.207632 -15.315813 1.153257 0.545680
6.642092 -1.487771 5.659937 0.131926
16.373705 7.711379 -0.002296 0.079622
19.384056 -24.021496 7.019816 0.683838
-10.866550 4.318243 4.713640 0.092250
-9.443858 8.308424 0.723943 0.116486
23.265701 -21.301519 4.167805 0.471437
-17.443359 -13.229359 -0.120647 0.157493
2.994762 3.629264 3.873151 0.138162
17.924990 -11.316638 2.539029 0.298620
18.834942 -11.956638 1.358611 0.285390
3.927955 -16.059423 1.806202 0.636278
-6.354955 7.459810 -0.003356 0.170873
-25.793135 -10.748207 -0.013091 0.142142
-2.108973 -1.013552 4.415642 0.108200
-1.671333 13.178353 0.098259 0.101207
21.219040 7.227938 1.748047 0.157062
-15.672880 11.371228 0.765374 0.202229
-7.121548 3.005908 0.097389 0.362455
-13.365358 3.196582 3.096448 0.089330
7.550088 0.327404 4.163592 0.131230
8.382337 -0.315947 5.677453 0.072995
8.568226 -14.719943 -0.101097 0.087451
14.422543 -2.736025 4.509536 0.149087
-29.271545 0.451889 0.002458 0.342234
-5.379519 -6.679380 0.096326 0.167706
-6.392576 -13.929049 -0.198917 0.094814
-9.954369 -1.823638 -0.007993 0.154457
12.401755 -20.752949 0.744875 0.637763
15.888721 18.605652 6.262091 0.382509
-18.800274 -0.023793 -0.093413 0.167589
20.243010 -3.353717 0.076416 0.339255
11.905713 11.393225 1.575280 0.230557
16.764387 -3.994780 3.947294 0.057245
-3.284072 21.753445 6.728961 0.696400
17.970757 -13.874229 -0.180450 0.163114
8.915808 -10.112386 0.779227 0.127044
-23.800629 -21.377901 2.811287 0.386653
11.210974 10.313346 2.804873 0.177083
-25.491636 22.398312 7.907579 0.638639
7.605964 -1.173684 0.035897 0.331119
-0.452225 -15.613041 4.766864 0.347610
-10.209398 -1.712201 5.193089 0.068381
-18.201429 3.732399 5.080516 0.053995
-28.302462 0.469394 -0.043493 0.279018
25.398754 -7.878090 0.071658 0.058108
19.230299 2.390746 4.395638 0.071999
12.500653 2.363541 3.665862 0.095122
19.584633 -21.838448 5.145340 0.559931
-7.697324 -15.456623 6.295529 0.473199
-15.278625 -17.094273 4.702575 0.393021
16.050446 -18.764694 3.041885 0.472527
-10.749786 12.580362 0.175818 0.149130
9.911589 -0.421026 4.243282 0.102528
-23.744987 -19.148520 0.990855 0.464177
25.842670 5.362223 0.048583 0.118660
-15.027109 -16.184853 1.734353 0.409828
-5.921620 0.232315 -0.099802 0.148561
2.980404 -1.367401 0.009680 0.166547
-28.546238 3.530935 -0.078338 0.138058
28.876591 0.941282 0.022058 0.396009
-24.693674 3.796007 -0.059197 0.286921
-6.962891 -24.312433 1.193822 0.698828
8.926495 -24.679068 0.460808 0.669146
12.263813 6.491842 0.013355 0.151027
-20.700890 -2.047047 0.070879 0.110341
29.963402 -15.074830 1.288365 0.569658
5.387399 11.472001 1.764439 0.173037
11.836938 0.754355 -0.058473 0.268941
10.009997 9.774332 0.964752 0.117177
-19.552530 4.866259 3.667447 0.131488
-12.983931 9.182774 -0.070238 0.169753
27.461605 3.002356 -0.069284 0.333007
24.802866 0.143029 -0.032724 0.147108
-29.291454 -2.016424 0.082804 0.339179
-23.954309 10.737430 0.771451 0.208588
-12.992067 -10.738453 -0.126673 0.120370
-22.309076 3.444754 0.001145 0.345858
12.600057 -11.729048 2.625300 0.222721
-24.029421 10.850005 0.199058 0.148259
2.933255 -6.603381 0.044163 0.168630
19.312843 -1.523652 0.009791 0.268903
9.306833 -2.319303 0.095849 0.129424
5.645759 17.448547 5.965400 0.333792
10.976713 0.899852 3.332251 0.057951
-12.423845 13.114415 2.286219 0.239638
12.536671 -24.481478 0.732479 0.430465
-6.404992 -22.423326 3.793941 0.528292
-21.522644 -1.864531 0.071936 0.280725
17.394360 5.644574 -0.098444 0.084515
12.365915 -11.177859 -0.198006 0.077647
5.421652 -1.202807 5.772841 0.126472
14.970899 -24.754044 3.687847 0.557010
-15.079520 13.092463 0.292634 0.229690
6.876373 -0.035722 0.023469 0.145499
-13.806040 10.782235 1.325703 0.148895
-7.564690 -9.460318 -0.036120 0.077291
9.265080 -0.515417 3.048771 0.146401
13.413561 2.952735 0.081361 0.201247
4.438347 1.088078 3.801899 0.072195
9.558852 -12.809190 0.104381 0.097441
-1.855433 0.468135 5.757261 0.137482
21.015743 -14.645812 -0.013800 0.057121
-16.657518 -1.097239 3.773061 0.066994
-12.183216 4.593793 5.282516 0.114095
7.040759 -1.685257 4.939281 0.068669
-11.892400 -1.958508 0.042233 0.296935
-1.948043 1.324462 3.478479 0.117333
-9.086561 -3.378201 3.997131 0.083125
-18.574829 6.930075 0.016695 0.069332
26.636827 19.267956 7.208842 0.339327
13.282133 12.088173 2.529175 0.111364
16.614424 -0.987690 -0.039332 0.151907
-26.180185 23.270081 5.115955 0.594032
21.506069 -2.529663 -0.099835 0.279559
-22.572760 -7.489110 0.995248 0.114047
24.961575 8.121028 0.192892 0.194655
-21.445723 1.719394 0.020161 0.307194
-18.686396 -5.766387 0.041654 0.197989
12.645692 13.876680 2.034035 0.108036
-8.119303 -3.965091 0.001447 0.381104
-9.706773 -0.084868 3.521331 0.055769
9.080437 3.640745 3.429897 0.078832
-18.298231 -3.785154 0.010686 0.309977
-6.716787 10.550102 -0.162360 0.073146
15.690465 24.227390 7.333442 0.559757
-4.997754 15.036162 0.500569 0.343795
-5.931904 2.012708 5.371946 0.109021
-21.213829 1.983213 -0.029040 0.103898
-6.775978 -2.257545 5.435610 0.125993
-21.659695 -13.078339 0.070870 0.079226
-0.989302 -9.514800 0.336369 0.203661
-20.144796 -7.060370 2.862325 0.156973
-8.687740 -1.423355 0.079650 0.268890
-12.004506 6.918677 1.668655 0.169107
22.765404 9.725735 0.188544 0.132952
-0.661469 -15.373103 6.432009 0.340574
2.612662 -4.570249 3.237951 0.119612
-1.375028 -8.386956 -0.108768 0.078317
15.804678 3.612338 -0.071964 0.387904
8.499624 12.099264 0.081648 0.172972
2.001515 -1.409384 -0.078948 0.299392
-13.461897 -15.942299 1.525817 0.555492
7.708598 -0.631561 -0.081966 0.230012
13.227550 -20.790266 3.932526 0.494793
15.377653 -0.024164 -0.004155 0.107944
17.700371 -1.808260 3.767817 0.149941
-27.158175 -3.504916 -0.094900 0.279886
26.003302 -13.495253 1.638162 0.223328
-12.486336 -3.488220 0.047492 0.130536
-11.326613 -3.900275 -0.013193 0.312304
18.080936 0.834458 0.069375 0.221951
0.388399 -2.215711 0.088829 0.182491
-18.951941 -2.573260 4.100063 0.085135
