# .PCD v0.7 - Point Cloud Data file format
VERSION 0.7
FIELDS x y z intensity semantic_label instance_id
SIZE 4 4 4 4 4 4
TYPE F F F F F F
COUNT 1 1 1 1 1 1
WIDTH 100
HEIGHT 1
VIEWPOINT 0 0 0 1 0 0 0
POINTS 100
DATA ascii
-24.720028 -12.234025 2.990001 0.205738 3.000000 1.000000
-5.362405 -6.768617 0.798485 0.200427 3.000000 2.000000
3.625869 -3.500000 1.528318 0.367573 5.000000 1.000000
-27.706472 -16.341688 4.563864 0.623274 2.000000 1.000000
8.106792 -0.774854 -0.034549 0.220426 0.000000 1.000000
-5.027546 7.400517 2.433597 0.129169 7.000000 1.000000
-21.811790 3.348684 -0.044965 0.103854 0.000000 1.000000
18.652441 -20.234669 5.006746 0.443093 2.000000 2.000000
21.369490 4.287841 0.004959 0.293176 1.000000 2.000000
-25.002647 -3.233905 0.030038 0.247483 0.000000 1.000000
-9.082415 1.833928 -0.043365 0.134944 0.000000 1.000000
6.418304 -5.458694 0.056182 0.166269 1.000000 1.000000
15.750749 0.691734 0.509404 0.748788 4.000000 1.000000
11.118252 -3.500000 1.503291 0.428889 5.000000 2.000000
14.393216 -7.414978 1.838569 0.260113 7.000000 2.000000
-12.454865 -2.346890 1.305860 0.383218 7.000000 3.000000
20.253418 -0.566473 0.497718 0.888418 4.000000 2.000000
-22.202957 -8.915075 2.060695 0.168341 3.000000 3.000000
-26.021231 -1.457280 -0.025502 0.101626 0.000000 1.000000
-11.500623 -4.250074 3.205949 0.303790 7.000000 4.000000
10.269113 -0.854032 0.670364 0.930600 4.000000 3.000000
-5.420485 -3.500000 0.801064 0.356792 5.000000 3.000000
-16.164818 -5.280343 3.224164 0.827557 6.000000 1.000000
-8.682099 13.347390 2.199614 0.260942 3.000000 4.000000
-8.492661 17.830324 3.380136 0.338812 2.000000 2.000000
5.862820 -2.480270 1.697248 0.810202 4.000000 4.000000
-7.944898 -10.564304 2.674727 0.230476 3.000000 5.000000
17.049641 -0.198977 0.818546 0.814346 4.000000 5.000000
0.618942 3.500000 0.705969 0.428434 5.000000 4.000000
19.624990 -5.413557 2.718369 0.730026 6.000000 2.000000
-13.898634 0.556328 4.056905 0.281199 7.000000 5.000000
11.401712 11.755669 0.787618 0.224575 3.000000 6.000000
20.387257 4.204108 0.029226 0.271492 1.000000 2.000000
5.882903 -0.422029 1.482329 0.566921 4.000000 6.000000
14.693077 0.118400 2.491619 0.245578 7.000000 6.000000
-17.641806 -11.418837 1.187300 0.157981 3.000000 7.000000
20.763029 4.048493 0.112497 0.245497 1.000000 2.000000
5.921268 -2.018576 -0.034460 0.260016 0.000000 1.000000
-18.270403 19.363590 3.557240 0.386392 2.000000 2.000000
-21.243858 20.097492 0.907452 0.494217 2.000000 2.000000
-2.865222 -4.650624 0.136190 0.272484 1.000000 1.000000
-8.230428 -2.958344 0.375447 0.197262 7.000000 7.000000
13.526681 5.131830 3.280145 0.662043 6.000000 3.000000
-9.069849 -3.500000 0.300669 0.327351 5.000000 5.000000
18.540855 -5.232514 2.757275 0.891634 6.000000 4.000000
-8.858401 -1.412153 1.785087 0.369445 7.000000 8.000000
18.017719 -1.946299 1.023289 0.610398 4.000000 7.000000
11.547470 -7.231944 0.271551 0.296550 7.000000 9.000000
10.959123 -3.500000 0.134333 0.540323 5.000000 6.000000
-23.596498 -9.690526 0.663874 0.218744 3.000000 8.000000
-18.584419 -5.454297 2.420330 0.829746 6.000000 5.000000
-26.440130 5.154631 0.040263 0.247386 1.000000 2.000000
16.931499 -10.485830 1.513996 0.293711 3.000000 9.000000
23.446756 -22.196878 7.428225 0.663121 2.000000 2.000000
-11.049698 5.920328 4.022472 0.275531 7.000000 10.000000
-6.634171 9.302965 1.022111 0.224851 7.000000 11.000000
-13.526826 5.445058 2.177734 0.842584 6.000000 6.000000
-7.530179 11.675366 0.470322 0.269190 3.000000 10.000000
-20.838379 1.534876 0.000583 0.259450 0.000000 1.000000
6.194692 -0.225190 3.001632 0.130815 7.000000 12.000000
21.914421 -4.164854 0.089636 0.196072 1.000000 1.000000
3.161758 4.806098 2.499649 0.752896 6.000000 7.000000
0.552557 -0.244084 0.024627 0.213714 0.000000 1.000000
-2.177282 -3.261045 0.754599 0.299833 7.000000 13.000000
23.111853 1.904015 0.977676 0.627830 4.000000 8.000000
18.188196 5.454101 2.989697 0.841083 6.000000 8.000000
9.313448 3.500000 1.373788 0.429957 5.000000 7.000000
-6.791804 -0.002367 1.640890 0.379968 7.000000 14.000000
-1.676620 -1.214430 0.013941 0.256015 0.000000 1.000000
7.580978 1.846039 0.838519 0.694660 4.000000 9.000000
3.203892 -5.053082 0.132175 0.162902 1.000000 1.000000
12.229065 17.842987 1.635798 0.418435 2.000000 3.000000
-2.715246 3.500000 0.833078 0.511721 5.000000 8.000000
9.514270 5.129664 0.025999 0.369352 1.000000 2.000000
7.567563 2.381222 0.602460 0.561493 4.000000 10.000000
-10.868211 16.333492 4.808969 0.603594 2.000000 2.000000
9.829959 -3.500000 1.002361 0.544104 5.000000 9.000000
-17.539064 4.003617 0.078695 0.198670 1.000000 2.000000
27.732832 -4.313133 0.097365 0.202959 1.000000 1.000000
-9.549829 -3.500000 0.781208 0.584036 5.000000 10.000000
-13.700686 4.899549 2.405784 0.907310 6.000000 9.000000
18.818064 -0.793806 1.091730 0.801266 4.000000 11.000000
-20.992640 6.180151 0.343358 0.178999 3.000000 11.000000
-21.812302 -4.616730 0.066243 0.177272 1.000000 1.000000
16.982918 -0.557322 1.060361 0.641389 4.000000 12.000000
10.629930 1.500301 2.474479 0.368810 7.000000 15.000000
10.320047 3.500000 0.406097 0.345937 5.000000 11.000000
-1.881465 5.025569 0.114094 0.223828 1.000000 2.000000
-0.550106 -1.811605 0.016730 0.324019 0.000000 1.000000
13.427986 20.104376 5.702974 0.389987 2.000000 3.000000
10.756201 -8.132846 1.667913 0.271062 3.000000 12.000000
-3.761934 3.500000 1.717140 0.559873 5.000000 12.000000
0.038002 -3.500000 1.785186 0.470531 5.000000 13.000000
7.300552 -2.272846 1.485472 0.690633 4.000000 13.000000
-7.616398 -12.058983 1.395742 0.273700 3.000000 13.000000
18.960566 5.777008 2.509094 0.830671 6.000000 10.000000
24.555336 -8.088049 1.994385 0.269831 3.000000 14.000000
21.957586 -2.438772 0.962966 0.712417 4.000000 14.000000
5.183085 -5.372263 0.049048 0.294815 1.000000 1.000000
16.379725 15.407332 7.542326 0.318659 2.000000 3.000000
